921.859734 -1001.020096 698.65
951.859716 -1001.020096 698.63
981.859698 -1001.020096 698.77
1011.859680 -1001.020096 698.64
1041.859661 -1001.020096 698.55
459.149714 -1000.050045 698.40
460.999687 -997.540072 698.70
471.059648 -991.830081 698.14
479.239713 -987.550052 698.07
531.079799 -971.440125 698.22
471.859652 -971.020114 697.87
501.859634 -971.020114 698.07
561.859716 -971.020114 698.28
591.859698 -971.020114 698.40
621.859680 -971.020114 698.54
651.859662 -971.020114 698.88
681.859643 -971.020114 698.65
711.859625 -971.020114 698.87
741.859607 -971.020114 698.64
771.859588 -971.020114 698.80
801.859570 -971.020114 698.79
831.859789 -971.020114 698.85
861.859771 -971.020114 698.87
891.859753 -971.020114 698.62
921.859734 -971.020114 698.56
951.859716 -971.020114 698.54
981.859698 -971.020114 698.63
1011.859680 -971.020114 698.63
1022.329677 -971.020114 698.60
1026.879620 -964.690023 698.72
409.499694 -964.610105 697.82
1030.739638 -960.990077 699.47
1035.449652 -956.370073 698.35
423.409699 -956.260113 697.57
1038.839666 -953.370028 698.90
427.769645 -952.800038 698.06
1041.859661 -950.310133 698.48
432.129709 -950.120018 698.14
435.699626 -949.150085 697.23
1045.289574 -947.120091 697.73
1047.699681 -942.370058 697.78
560.449704 -941.700083 698.22
951.559759 -941.440025 698.22
441.859671 -941.020133 697.41
471.859652 -941.020133 697.95
501.859634 -941.020133 697.95
531.079799 -941.020133 697.98
591.859698 -941.020133 698.32
621.859680 -941.020133 698.69
651.859662 -941.020133 698.46
681.859643 -941.020133 698.54
711.859625 -941.020133 698.52
771.859588 -941.020133 698.78
801.859570 -941.020133 698.65
831.859789 -941.020133 698.53
861.859771 -941.020133 698.35
891.859753 -941.020133 698.25
921.859734 -941.020133 698.34
981.859698 -941.020133 698.40
742.859701 -940.340064 698.72
380.449695 -914.830057 697.45
385.969689 -911.590081 696.94
441.859671 -911.020091 697.62
471.859652 -911.020091 697.85
501.859634 -911.020091 697.81
531.859735 -911.020091 697.90
561.859716 -911.020091 698.13
591.859698 -911.020091 698.16
621.859680 -911.020091 698.22
651.859662 -911.020091 698.49
681.859643 -911.020091 698.49
711.859625 -911.020091 698.47
741.859607 -911.020091 698.38
771.859588 -911.020091 698.60
801.859570 -911.020091 698.57
831.859789 -911.020091 698.42
921.859734 -911.020091 698.15
951.859716 -911.020091 697.95
891.539609 -910.110067 698.22
388.989684 -909.970064 697.22
859.519726 -909.620054 698.22
396.379719 -906.310077 697.60
400.429734 -904.270107 697.82
968.329568 -904.080052 698.23
405.059712 -902.410101 697.54
409.859738 -899.690062 697.50
976.359772 -898.520099 699.57
980.199603 -896.720060 699.28
419.769721 -896.020101 697.07
987.339674 -892.550051 697.23
998.899777 -884.790057 697.16
351.859726 -881.020050 697.13
384.649688 -881.020050 697.54
411.859689 -881.020050 696.99
441.859671 -881.020050 697.70
471.859652 -881.020050 697.83
501.859634 -881.020050 697.78
531.859735 -881.020050 697.74
561.859716 -881.020050 697.90
591.859698 -881.020050 698.02
621.859680 -881.020050 698.15
651.859662 -881.020050 698.66
681.859643 -881.020050 698.31
711.859625 -881.020050 698.36
741.859607 -881.020050 698.25
771.859588 -881.020050 698.48
801.859570 -881.020050 698.49
831.859789 -881.020050 698.40
861.859771 -881.020050 698.13
891.859753 -881.020050 697.99
921.859734 -881.020050 697.88
323.659724 -879.080067 696.72
375.519641 -869.870102 697.53
378.839712 -867.510048 697.51
382.519708 -866.190106 696.53
385.679707 -863.510086 696.95
390.879675 -861.480092 697.24
291.859643 -851.020069 696.64
321.859625 -851.020069 696.59
365.219690 -851.020069 697.37
381.859707 -851.020069 696.98
411.859689 -851.020069 697.33
441.859671 -851.020069 697.52
471.859652 -851.020069 697.67
501.859634 -851.020069 697.68
531.859735 -851.020069 697.80
561.859716 -851.020069 697.86
591.859698 -851.020069 697.84
621.859680 -851.020069 698.27
651.859662 -851.020069 698.19
681.859643 -851.020069 698.37
711.859625 -851.020069 698.35
741.859607 -851.020069 698.20
801.859570 -851.020069 698.30
831.859789 -851.020069 698.29
861.859771 -851.020069 698.01
891.859753 -851.020069 697.91
771.649642 -850.370102 698.22
904.199792 -832.830095 698.10
906.449589 -830.980063 698.13
330.109632 -828.060053 696.72
351.859726 -827.940059 697.03
907.379622 -826.180097 698.88
918.019666 -822.290095 696.85
321.859625 -821.020087 696.65
344.719655 -821.020087 697.01
349.739720 -821.020087 697.00
381.859707 -821.020087 697.04
411.859689 -821.020087 697.44
441.859671 -821.020087 697.37
471.859652 -821.020087 697.46
501.859634 -821.020087 697.68
531.859735 -821.020087 697.66
561.859716 -821.020087 697.31
591.859698 -821.020087 697.67
621.859680 -821.020087 697.87
651.859662 -821.020087 698.02
681.859643 -821.020087 698.40
711.859625 -821.020087 697.95
741.859607 -821.020087 698.10
771.859588 -821.020087 698.03
801.859570 -821.020087 698.03
831.859789 -821.020087 698.07
861.859771 -821.020087 697.83
923.199685 -818.010066 696.94
360.609661 -815.660106 697.10
930.449716 -813.470099 696.97
934.449619 -809.310065 696.98
322.519626 -792.400074 696.70
713.539670 -792.340106 697.83
620.679564 -792.150110 697.23
411.399660 -791.620079 697.33
592.519699 -791.620079 697.64
683.219781 -791.130066 697.77
381.539682 -791.040055 696.30
325.539740 -791.020105 696.86
441.859671 -791.020105 697.34
501.859634 -791.020105 697.38
531.859735 -791.020105 697.29
561.859716 -791.020105 697.45
651.859662 -791.020105 697.75
741.859607 -791.020105 697.78
771.859588 -791.020105 697.81
831.859789 -791.020105 697.68
861.859771 -791.020105 697.80
472.589714 -790.990062 697.34
329.129725 -790.620103 696.95
296.039686 -790.300078 696.47
871.019743 -790.160074 698.20
352.019679 -790.110081 696.99
801.499764 -788.990051 697.70
331.649673 -787.020084 696.96
334.379686 -786.950082 696.71
873.739781 -786.900089 697.73
877.339741 -786.880080 698.70
337.379732 -785.380057 696.76
888.359779 -779.860064 696.85
900.179702 -772.870090 696.98
291.969723 -771.080085 696.28
306.769623 -764.330101 696.87
311.429645 -762.120085 696.85
271.589623 -761.180077 696.04
561.129655 -761.050107 697.22
321.859625 -761.020064 696.95
381.859707 -761.020064 696.67
621.859680 -761.020064 697.35
651.859662 -761.020064 697.29
711.859625 -761.020064 697.56
741.859607 -761.020064 697.64
831.859789 -761.020064 697.50
678.199597 -760.970071 697.42
410.859713 -760.800084 697.15
771.859588 -760.620062 697.56
801.399778 -760.620062 697.45
441.859671 -760.540085 697.20
471.859652 -760.540085 697.30
501.859634 -760.540085 697.08
532.949602 -760.540085 697.09
590.809730 -760.410056 697.32
316.089667 -760.160092 696.73
352.149708 -759.910069 696.79
837.359715 -759.040063 697.56
843.499691 -758.980095 698.01
864.559622 -751.970112 697.04
874.329720 -749.690094 696.89
852.409580 -748.900065 697.85
875.129606 -743.550059 697.03
261.339665 -731.300090 695.98
291.859643 -731.020082 696.66
321.859625 -731.020082 696.73
351.859726 -731.020082 696.79
381.859707 -731.020082 697.04
411.859689 -731.020082 697.05
441.859671 -731.020082 697.27
471.859652 -731.020082 697.01
501.859634 -731.020082 697.06
531.859735 -731.020082 697.14
561.859716 -731.020082 696.98
591.859698 -731.020082 697.44
651.859662 -731.020082 697.15
681.859643 -731.020082 697.28
711.859625 -731.020082 697.31
741.859607 -731.020082 697.54
771.859588 -731.020082 697.30
801.859570 -731.020082 697.43
619.949739 -730.110058 697.04
856.079601 -722.940063 696.28
273.399696 -716.190079 696.32
276.429667 -714.870078 696.57
861.359605 -714.540078 697.06
279.629684 -713.180059 696.72
282.649679 -711.510048 696.72
285.249663 -710.050103 696.66
288.999720 -708.620082 696.82
501.339637 -702.830055 697.01
533.199685 -702.650093 696.92
740.909624 -701.860064 697.25
652.059633 -701.770053 696.94
383.249651 -701.680101 696.77
586.239600 -701.340067 697.04
231.859680 -701.020101 695.44
291.859643 -701.020101 696.89
321.859625 -701.020101 696.53
411.859689 -701.020101 696.92
561.859716 -701.020101 696.99
711.859625 -701.020101 697.29
771.859588 -701.020101 697.03
472.649682 -700.590055 697.04
352.399672 -700.310107 696.96
624.179775 -700.260055 696.91
685.059660 -699.940089 697.01
441.199670 -698.300062 696.91
251.929729 -677.010057 696.49
255.219638 -675.200103 696.67
258.219684 -672.620068 696.82
442.039692 -672.580050 696.60
737.769693 -672.430072 696.91
411.609725 -671.930084 696.72
471.239670 -671.550091 696.78
500.749698 -671.080087 696.81
264.739653 -671.050103 696.88
291.859643 -671.020060 695.91
321.859625 -671.020060 696.78
352.399672 -671.020060 696.48
381.859707 -671.020060 696.57
621.859680 -671.020060 696.65
651.859662 -671.020060 696.64
681.859643 -671.020060 696.80
711.159725 -670.910099 696.87
561.589684 -670.590074 697.10
592.649609 -670.360059 696.61
202.199673 -670.190072 695.31
801.859570 -668.550104 695.89
261.859662 -666.510076 696.79
767.719563 -662.220072 697.71
770.249605 -660.340056 697.61
772.519589 -658.440091 697.46
774.399605 -657.760081 697.55
776.579578 -657.040113 697.52
781.079646 -655.080061 697.51
783.519677 -652.550078 697.32
789.909736 -648.610084 696.46
246.339674 -647.730103 696.61
793.749567 -644.800059 696.04
682.519644 -643.050072 696.50
713.629680 -642.580068 696.56
649.609627 -641.620051 696.43
381.769696 -641.180091 696.51
171.859717 -641.020078 695.21
201.859698 -641.020078 695.59
231.859680 -641.020078 696.55
261.859662 -641.020078 696.79
291.859643 -641.020078 696.19
321.859625 -641.020078 696.70
351.859726 -641.020078 696.40
411.859689 -641.020078 696.41
441.859671 -641.020078 696.55
471.859652 -641.020078 696.65
741.859607 -641.020078 696.82
622.399745 -640.090104 696.47
591.109687 -640.010068 696.56
560.129798 -639.830106 696.58
531.429630 -639.110078 696.96
503.469736 -638.610090 696.48
743.199795 -636.230087 697.34
745.839797 -634.680071 697.28
746.519747 -632.430096 697.09
256.859665 -631.910099 696.83
750.929567 -630.630057 697.05
752.749734 -629.580088 696.73
756.929659 -627.680063 696.84
727.339595 -625.080079 696.54
760.519644 -624.580091 696.76
733.179614 -622.080093 697.13
766.329739 -620.680056 695.87
735.219702 -619.470074 695.91
770.109720 -617.060087 695.82
736.589577 -615.770070 697.06
681.199643 -613.380091 696.19
738.409744 -613.340073 696.58
501.089673 -613.300055 696.46
560.179672 -613.300055 696.48
622.949785 -612.440083 696.12
712.679698 -611.590086 696.24
441.309631 -611.260086 696.43
352.539676 -611.190084 696.21
380.519638 -611.190084 696.12
152.289715 -611.020096 695.37
171.859717 -611.020096 695.51
201.859698 -611.020096 696.14
231.859680 -611.020096 696.73
261.859662 -611.020096 696.04
291.859643 -611.020096 696.55
321.859625 -611.020096 696.36
591.859698 -611.020096 696.36
411.039735 -610.760098 696.38
652.589723 -610.240101 696.22
741.859607 -609.930110 696.49
244.699647 -609.520073 696.93
743.929619 -609.010051 696.36
531.359569 -608.300058 696.45
471.159634 -607.730068 696.49
746.359675 -606.550071 696.23
749.019627 -604.980106 694.72
246.879739 -601.190090 696.72
751.309798 -600.610066 695.67
239.269665 -600.160071 697.13
241.749713 -599.810062 696.58
756.829673 -597.190069 695.68
267.379655 -595.910085 695.66
232.149662 -585.800072 696.71
236.219626 -584.540098 696.09
500.749698 -584.260090 696.42
619.629595 -583.550097 696.05
239.249715 -583.480095 696.22
249.719713 -582.800085 696.33
653.179663 -582.190078 695.99
114.749720 -581.650072 695.22
274.149708 -581.260104 695.95
141.859735 -581.020055 695.66
171.859717 -581.020055 696.36
201.859698 -581.020055 696.62
231.859680 -581.020055 696.44
261.859662 -581.020055 695.52
351.859726 -581.020055 696.08
411.859689 -581.020055 696.01
441.859671 -581.020055 696.27
591.859698 -581.020055 696.05
681.859643 -581.020055 695.88
381.379729 -580.830059 696.14
291.859643 -580.540076 696.53
322.149726 -580.540076 696.40
532.559634 -578.760105 696.37
473.089643 -578.240109 696.36
561.269777 -577.700103 696.31
691.159737 -573.010097 696.96
256.129722 -572.430073 695.63
697.219678 -566.870061 696.46
226.379704 -566.050107 696.95
228.469666 -564.990105 696.81
231.059676 -564.260102 696.92
703.109571 -562.300050 696.68
706.809754 -559.370066 696.00
709.339796 -557.550077 694.34
712.219668 -556.290103 695.22
271.379677 -554.550091 696.02
664.019679 -554.400112 695.92
560.589589 -552.630057 696.15
502.359681 -552.360084 696.14
668.309564 -551.690049 696.10
262.289648 -551.610072 695.20
441.929732 -551.260063 695.99
321.859625 -551.180086 696.22
90.269732 -551.150102 694.22
111.859634 -551.020073 694.97
171.859717 -551.020073 696.30
201.859698 -551.020073 696.43
231.859680 -551.020073 696.38
292.469651 -551.020073 696.54
351.859726 -551.020073 695.99
411.859689 -551.020073 695.88
717.109705 -551.020073 695.48
382.269625 -550.880070 695.86
622.859774 -550.120083 695.84
531.469767 -549.590052 696.30
590.999726 -549.540060 696.04
472.159728 -548.560093 696.42
141.859735 -548.330078 695.94
652.039683 -548.050071 695.82
673.379622 -548.010053 696.42
675.679768 -546.830056 696.34
678.739662 -545.810071 696.72
679.539785 -544.150095 696.43
681.859643 -543.020090 696.24
220.789649 -542.660106 696.47
218.129697 -542.590104 696.53
224.109720 -542.050098 696.38
246.609707 -540.990096 695.45
685.659574 -539.040078 696.49
688.969789 -537.410085 696.21
691.219586 -534.980089 695.75
266.379680 -533.130057 695.88
694.329592 -533.020096 695.22
700.129712 -526.730082 695.22
212.749707 -524.930102 696.59
214.909731 -524.270102 696.62
218.039687 -523.480072 695.89
623.499588 -522.510080 695.60
563.449750 -522.010093 696.06
292.469651 -521.620065 696.21
321.859625 -521.440103 696.12
141.859735 -521.020092 696.12
171.859717 -521.020092 696.60
201.859698 -521.020092 696.43
231.859680 -521.020092 695.50
261.859662 -521.020092 696.09
351.859726 -521.020092 696.02
382.269625 -521.020092 695.84
411.859689 -521.020092 695.88
213.879712 -520.440068 696.21
592.149680 -519.440092 695.92
441.859671 -519.230087 696.11
471.589739 -519.230087 695.92
501.859634 -519.230087 695.87
530.519784 -518.870102 696.05
213.249636 -516.910050 696.02
209.409687 -512.410101 696.22
215.039641 -511.720057 696.17
211.699739 -510.550094 696.23
183.969622 -509.130107 696.52
243.109733 -507.190064 695.21
257.659669 -505.800061 696.06
205.719716 -503.360090 696.25
207.749710 -502.880051 695.86
211.199692 -502.880051 696.08
214.879687 -498.770070 696.17
224.379634 -494.840050 696.08
212.449632 -494.660088 695.89
177.859689 -493.040070 696.34
141.149741 -492.480055 695.88
222.339665 -491.650067 695.52
213.079708 -491.630058 695.54
203.789707 -491.400103 695.86
469.789640 -491.270074 695.69
652.109744 -491.120096 695.70
111.859634 -491.020051 695.38
261.859662 -491.020051 696.02
291.859643 -491.020051 695.92
321.859625 -491.020051 696.11
351.859726 -491.020051 695.98
381.859707 -491.020051 695.87
411.859689 -491.020051 695.56
441.859671 -491.020051 695.83
531.859735 -491.020051 695.98
561.859716 -491.020051 695.72
591.859698 -491.020051 695.63
231.489662 -490.800070 696.21
621.649734 -490.610074 696.22
502.659638 -490.220106 695.72
221.749726 -489.610098 695.45
220.829667 -486.630061 695.58
218.999644 -481.950090 695.70
238.899646 -481.620090 695.25
236.239694 -479.330097 695.25
606.409635 -479.230052 695.72
234.469639 -479.230052 695.56
234.309686 -477.740063 695.74
233.749671 -474.230055 695.98
612.289791 -473.630081 696.44
618.039799 -468.700086 696.17
617.239676 -464.410082 696.24
232.159637 -461.220100 695.72
81.859653 -461.020069 693.96
261.859662 -461.020069 695.96
291.859643 -461.020069 695.82
321.859625 -461.020069 695.75
351.859726 -461.020069 695.92
381.859707 -461.020069 695.64
411.859689 -461.020069 695.64
441.859671 -461.020069 695.51
471.859652 -461.020069 695.55
501.859634 -461.020069 695.61
531.859735 -461.020069 695.68
561.859716 -461.020069 695.56
591.859698 -461.020069 695.69
621.649734 -461.020069 696.54
201.359651 -460.510106 695.71
624.539581 -454.700071 694.74
626.769666 -451.900056 694.71
575.679591 -449.760101 695.50
632.839581 -446.550050 694.89
579.609670 -445.510056 695.89
582.649615 -441.950055 696.42
585.339729 -439.260060 695.20
590.829679 -436.940083 696.02
595.609755 -434.310085 696.75
563.039595 -432.150092 695.33
599.679719 -431.760064 695.39
201.949709 -431.590077 695.73
589.829585 -431.540084 696.72
51.859671 -431.020087 693.29
81.859653 -431.020087 693.98
111.859634 -431.020087 694.93
141.859735 -431.020087 696.43
171.859717 -431.020087 696.53
231.859680 -431.020087 695.85
261.859662 -431.020087 695.52
291.859643 -431.020087 695.69
321.859625 -431.020087 695.59
351.859726 -431.020087 695.68
381.859707 -431.020087 695.66
411.859689 -431.020087 695.28
441.859671 -431.020087 695.34
471.859652 -431.020087 695.41
501.859634 -431.020087 695.35
531.859735 -431.020087 695.26
620.769575 -430.830091 694.72
602.249660 -429.790097 693.85
607.809672 -424.970092 694.64
266.179708 -404.410089 695.52
541.239627 -402.860074 695.31
52.079711 -401.190063 693.22
81.859653 -401.190063 694.15
21.859689 -401.020076 693.10
111.859634 -401.020076 694.86
146.129670 -401.020076 695.62
171.859717 -401.020076 695.52
201.949709 -401.020076 695.60
261.859662 -401.020076 695.49
291.859643 -401.020076 695.62
351.859726 -401.020076 695.47
381.859707 -401.020076 695.34
441.859671 -401.020076 695.21
471.859652 -401.020076 695.15
501.859634 -401.020076 695.02
531.859735 -401.020076 695.04
591.859698 -401.020076 694.38
412.019642 -400.720089 695.22
232.809663 -400.660092 695.91
561.249590 -400.630078 696.25
269.559629 -400.540097 695.51
265.379704 -399.660086 696.02
322.339723 -399.630073 695.49
543.559723 -396.510092 695.41
266.019636 -395.700083 695.43
546.629592 -392.950091 695.26
547.579575 -389.150070 696.05
119.199676 -387.550092 694.98
550.089667 -386.990077 696.20
552.179629 -383.300076 695.93
249.999720 -381.450074 694.44
555.109614 -380.230088 694.99
564.859762 -378.200094 694.02
557.589781 -377.940066 694.44
154.999659 -376.550092 695.34
560.219571 -375.930080 694.04
21.859689 -371.020064 693.04
51.859671 -371.020064 693.48
81.859653 -371.020064 694.34
111.859634 -371.020064 694.94
141.859735 -371.020064 695.25
171.859717 -371.020064 695.56
201.949709 -371.020064 695.55
231.859680 -371.020064 695.50
261.859662 -371.020064 695.43
291.859643 -371.020064 695.37
321.859625 -371.020064 695.28
351.859726 -371.020064 695.49
381.859707 -371.020064 695.38
411.859689 -371.020064 694.84
531.859735 -371.020064 695.47
501.249626 -370.650076 694.87
443.239640 -370.560095 695.11
471.859652 -370.560095 694.89
562.659602 -369.930078 694.27
151.059724 -363.370090 697.72
156.039653 -361.410068 696.22
246.809678 -359.690065 694.31
135.949654 -358.940083 695.66
149.129716 -358.370064 696.74
500.249651 -358.310066 694.71
166.239737 -357.050092 696.01
170.969701 -353.840071 694.98
504.539654 -353.620090 694.91
149.949670 -352.020082 695.69
507.839657 -349.660087 693.91
161.329632 -348.510074 695.87
512.899741 -345.010070 695.43
514.359627 -344.660090 695.47
159.989682 -342.580073 695.24
517.609755 -341.830062 695.50
130.789704 -341.680083 695.40
351.859726 -341.660074 695.03
382.579676 -341.660074 695.06
502.999732 -341.400076 694.78
518.589662 -341.300090 695.23
22.359736 -341.190070 692.79
51.859671 -341.020083 693.67
81.859653 -341.020083 694.57
111.859634 -341.020083 695.04
141.859735 -341.020083 695.26
171.859717 -341.020083 695.62
201.699626 -341.020083 695.23
231.859680 -341.020083 695.27
261.859662 -341.020083 695.26
321.859625 -341.020083 695.29
441.859671 -341.020083 694.82
471.859652 -341.020083 694.66
411.739635 -340.590067 694.89
292.019716 -340.110088 695.23
536.249605 -339.990093 693.92
520.649700 -339.700082 695.08
243.899643 -337.260080 694.13
135.429658 -337.190079 694.77
523.789631 -336.900096 694.45
524.489768 -331.970072 693.65
122.129661 -328.370082 694.67
529.239682 -327.760074 694.13
124.899692 -326.660083 694.54
382.199682 -311.910086 695.22
171.859717 -311.300079 695.71
21.859689 -311.020071 692.91
51.859671 -311.020071 694.34
81.859653 -311.020071 695.07
111.859634 -311.020071 695.04
141.859735 -311.020071 695.44
231.859680 -311.020071 694.87
261.859662 -311.020071 694.96
291.859643 -311.020071 694.98
321.859625 -311.020071 694.79
351.859726 -311.020071 694.82
411.859689 -311.020071 694.60
441.859671 -311.020071 694.61
471.859652 -310.790086 694.39
508.839633 -310.610094 693.98
201.879648 -309.470085 695.27
243.429639 -306.510087 694.29
85.809681 -305.260088 694.94
6.039626 -301.510090 692.56
73.499685 -300.690077 694.83
449.109702 -300.340068 694.61
86.679628 -299.510080 694.76
452.019737 -297.690091 694.63
87.929686 -296.870077 694.81
75.429694 -296.830089 694.19
453.789673 -295.800070 694.70
233.879700 -293.510077 695.08
77.539725 -292.930083 694.72
236.149684 -292.010084 694.84
457.859637 -291.380068 695.67
8.269710 -289.200065 692.93
460.829640 -289.120088 695.27
239.089643 -288.720086 695.09
230.149711 -287.630070 695.01
461.179708 -286.870084 695.28
463.109717 -286.110097 695.30
241.859674 -286.040095 694.56
231.499637 -285.690086 694.51
235.089622 -282.940064 694.46
471.609688 -281.800085 695.06
462.929695 -281.740087 695.29
442.879715 -281.130080 693.82
21.859689 -281.020090 693.39
51.859671 -281.020090 693.78
81.859653 -281.020090 695.27
111.859634 -281.020090 695.18
141.859735 -281.020090 695.27
171.859717 -281.020090 695.30
201.859698 -281.020090 695.19
231.859680 -281.020090 694.70
261.859662 -281.020090 694.85
291.859643 -281.020090 694.86
321.859625 -281.020090 694.63
351.859726 -281.020090 694.81
381.859707 -281.020090 694.94
411.859689 -281.020090 694.21
237.499728 -280.470079 694.62
246.629656 -280.020084 693.98
41.409623 -277.080066 693.80
467.239649 -276.940092 694.87
42.949664 -276.010088 693.70
238.769736 -273.760084 694.06
4.469660 -272.940070 692.89
159.469685 -272.550073 695.45
29.429627 -271.680096 693.72
230.629690 -271.480065 694.72
-0.000365 -271.400089 692.67
163.609710 -270.080088 695.49
41.739623 -269.910070 694.22
30.449671 -269.370065 693.45
470.199676 -268.980067 693.93
158.859677 -268.580065 695.42
156.019703 -267.980091 695.37
7.449638 -266.720088 693.41
240.719695 -265.970076 693.59
159.359724 -265.700073 695.38
33.559677 -265.150093 694.23
8.059645 -264.580073 694.05
4.399718 -263.360087 693.18
0.879675 -262.260067 692.38
411.589656 -261.130092 694.21
7.219623 -260.990088 693.26
9.829701 -260.950070 693.69
249.309676 -260.860089 694.72
5.719719 -258.580071 692.88
11.109684 -257.870078 693.37
67.949648 -257.310092 695.11
74.239722 -256.770086 695.24
1.719698 -256.660067 692.53
71.929720 -255.980087 695.21
429.839657 -253.560095 694.07
71.789716 -252.630091 695.05
292.589705 -251.430085 694.27
21.859689 -251.020078 694.73
51.859671 -251.020078 695.38
81.859653 -251.020078 695.05
111.859634 -251.020078 695.04
141.859735 -251.020078 695.24
171.859717 -251.020078 695.14
201.859698 -251.020078 694.86
231.859680 -251.020078 693.91
261.859662 -251.020078 694.82
321.859625 -251.020078 694.47
351.859726 -251.020078 694.60
381.859707 -251.020078 694.66
411.859689 -251.020078 694.82
432.519677 -251.020078 694.40
441.129728 -250.690078 694.72
434.809730 -244.830079 694.62
436.899692 -239.940073 694.25
218.699687 -237.120078 694.64
393.829728 -236.870084 694.45
234.769715 -234.580062 693.52
440.579688 -233.190089 693.57
401.589663 -233.110082 694.74
449.159695 -232.120081 693.61
406.879642 -229.410077 694.21
36.859680 -229.120065 694.85
252.019621 -227.910084 694.44
414.969695 -225.310070 694.36
421.039729 -222.090074 694.42
82.839679 -221.620070 695.21
20.579706 -221.310079 694.72
51.859671 -221.310079 695.11
111.859634 -221.020067 694.96
141.859735 -221.020067 695.18
171.859717 -221.020067 695.06
201.859698 -221.020067 694.82
231.859680 -221.020067 693.36
261.859662 -221.020067 694.50
291.859643 -221.020067 694.62
321.859625 -221.020067 694.49
351.859726 -221.020067 694.55
411.859689 -221.020067 694.47
441.859671 -221.020067 693.57
381.789646 -220.480091 694.76
18.289654 -218.180093 694.67
224.649667 -217.290078 694.22
14.649676 -216.990091 694.58
432.699699 -216.760077 693.50
421.379704 -216.270093 693.01
16.149699 -214.990081 694.62
424.249721 -214.120074 693.16
18.659672 -213.990075 694.70
415.199710 -212.830087 694.20
416.719682 -212.080075 693.77
402.469703 -211.970085 694.40
2.399648 -209.480091 693.46
22.839715 -209.480091 694.70
420.359660 -208.690092 693.16
40.909694 -207.580066 694.81
54.499673 -207.490085 695.29
250.679670 -207.190069 693.98
407.449631 -206.440087 694.40
98.409659 -203.800085 694.63
216.109678 -203.040069 694.60
5.429737 -202.290087 693.26
414.309695 -200.270067 693.39
54.969677 -200.160077 695.03
100.899683 -199.540095 694.67
399.539718 -197.760065 694.31
87.539719 -197.560093 694.77
90.179721 -194.230077 694.72
417.999665 -192.400083 693.47
20.989624 -191.680086 692.74
51.859671 -191.680086 694.86
30.899726 -191.440066 694.22
171.499673 -191.300092 694.75
81.859653 -191.020085 694.65
111.859634 -191.020085 695.02
141.859735 -191.020085 694.92
201.859698 -191.020085 694.64
231.859680 -191.020085 694.27
261.859662 -191.020085 694.29
291.859643 -191.020085 694.27
321.859625 -191.020085 694.27
351.859726 -191.020085 694.01
411.859689 -191.020085 693.44
382.249675 -190.490084 694.26
57.649697 -184.900088 694.61
32.609695 -182.330073 693.50
31.559726 -180.790077 693.25
98.949724 -180.510084 694.53
59.929656 -179.480080 693.67
406.949703 -178.860083 693.27
189.339638 -178.760082 694.67
60.039735 -175.490078 693.46
191.249697 -174.980071 694.84
198.129710 -170.760084 694.72
181.829667 -170.330083 694.57
202.609710 -169.540083 694.57
186.839639 -168.310078 694.72
49.719716 -167.550077 693.44
101.309719 -167.300083 693.94
51.859671 -166.050084 693.35
193.629641 -163.980072 694.85
101.749680 -163.580069 693.62
358.149680 -163.450085 694.89
81.499728 -161.290077 694.15
111.859634 -161.290077 693.97
21.859689 -161.020074 692.63
51.859671 -161.020074 693.18
141.859735 -161.020074 694.47
171.859717 -161.020074 694.39
201.859698 -161.020074 694.42
231.859680 -161.020074 694.07
291.859643 -161.020074 694.24
321.859625 -161.020074 694.07
351.859726 -161.020074 694.89
381.109696 -160.480083 693.26
261.129719 -160.430075 693.99
362.969656 -159.480077 694.43
194.839682 -159.200085 694.44
337.789649 -157.870079 694.60
75.559723 -156.790082 693.54
366.519623 -156.590081 694.13
340.359709 -155.800081 694.82
368.699714 -155.300079 693.55
248.199740 -153.630083 693.50
51.859671 -153.370070 692.83
42.339656 -152.830079 692.65
345.309713 -152.770082 695.04
348.989709 -152.300078 694.60
371.559638 -152.270079 693.31
250.929635 -151.980082 693.82
69.679686 -151.450081 693.64
254.019691 -151.010075 693.59
353.449641 -149.730077 694.56
99.829646 -148.860086 693.22
84.039626 -148.770075 693.48
250.789631 -148.430085 693.31
356.589690 -148.010074 694.28
67.809645 -147.880075 692.91
249.749637 -146.730076 693.53
360.409690 -146.300075 693.38
63.219684 -145.630085 692.75
50.769684 -145.290080 692.52
252.379665 -145.160081 693.34
364.629632 -143.550083 693.32
81.859653 -141.510084 693.36
61.149671 -140.660072 692.56
371.749634 -138.660076 693.35
244.219669 -138.160074 693.31
106.179687 -136.270083 693.38
237.999656 -134.060081 693.88
21.449653 -132.660074 692.01
102.149741 -131.860084 693.04
241.399645 -131.770074 693.83
51.859671 -131.020077 692.36
81.859653 -131.020077 692.87
111.859634 -131.020077 693.51
141.859735 -131.020077 693.52
171.859717 -131.020077 694.02
201.859698 -131.020077 694.19
231.859680 -131.020077 694.09
261.859662 -131.020077 693.26
291.859643 -131.020077 693.94
351.859726 -131.020077 693.08
320.859650 -130.490076 695.23
115.659684 -129.900077 693.00
100.019643 -129.330072 692.59
243.499700 -128.630084 693.84
110.399630 -125.630082 692.21
234.039653 -124.230075 694.10
235.999705 -123.510077 694.08
115.859656 -123.370073 692.77
106.649691 -122.770085 692.53
92.239640 -122.300081 692.47
237.909645 -121.980085 694.02
355.809635 -120.440074 693.49
343.399654 -119.430079 693.43
88.289730 -117.180089 692.26
224.859732 -115.910081 693.97
305.429673 -114.440072 694.73
227.989688 -113.760077 693.75
344.649712 -112.830074 693.42
229.649664 -112.730073 693.63
308.379726 -112.540077 694.75
231.579673 -112.190082 693.73
186.019685 -112.040089 693.96
180.059731 -111.090076 693.90
185.719728 -107.870080 693.66
314.219626 -107.380082 694.52
181.469624 -107.300075 693.75
323.609731 -106.900088 694.35
325.309725 -105.900083 693.43
183.179712 -105.690077 693.71
181.109699 -105.590077 693.69
328.429706 -103.540088 692.96
220.989739 -103.160080 694.14
81.019630 -102.370080 692.12
222.659690 -102.150085 694.04
52.199646 -101.540077 692.11
224.309692 -101.300073 693.95
21.859689 -101.020080 692.42
111.859634 -101.020080 692.36
141.859735 -101.020080 692.76
171.859717 -101.020080 693.09
231.859680 -101.020080 693.87
291.859643 -101.020080 694.24
321.859625 -101.020080 693.61
201.589666 -100.380074 693.86
215.379735 -99.980072 693.87
261.089701 -99.740083 692.74
220.789649 -99.010080 693.83
336.309695 -97.430081 693.42
221.179736 -96.040078 693.72
141.199734 -95.490082 693.83
139.109653 -92.550078 691.72
200.789661 -92.120078 693.45
199.609664 -90.330073 693.22
137.489695 -90.190084 691.88
206.019673 -88.300078 693.68
198.719649 -88.010081 693.53
203.559692 -87.120081 693.33
203.149656 -84.110090 693.73
278.409668 -79.940081 694.13
281.559692 -78.120077 693.90
162.359651 -77.200078 693.01
285.309631 -76.340077 693.95
159.999656 -75.050074 692.93
158.019655 -73.480079 692.91
51.859671 -71.020084 691.61
82.559671 -71.020084 691.72
111.859634 -71.020084 691.79
141.859735 -71.020084 692.28
171.859717 -71.020084 693.76
231.859680 -71.020084 693.59
261.859662 -71.020084 692.56
291.859643 -71.020084 693.68
202.399645 -70.980081 693.40
231.399651 -66.860080 693.23
231.309640 -64.800072 693.46
234.469639 -64.520079 693.35
178.929726 -63.910071 694.19
233.149638 -63.800081 693.37
176.949724 -61.230081 692.60
217.949676 -61.080073 693.27
174.749683 -58.440078 692.72
263.489713 -57.970081 693.40
266.359730 -56.050077 692.91
283.019697 -55.680081 693.47
284.589663 -54.660081 693.29
269.379726 -54.290085 693.22
219.019713 -52.220080 693.05
288.559641 -52.120080 693.04
11.859695 -51.020081 692.63
212.329696 -50.560082 693.35
205.859720 -45.690077 692.97
272.859631 -44.200081 693.29
275.039723 -42.770082 692.86
262.039683 -41.360085 693.23
81.859653 -41.020080 691.26
111.859634 -41.020080 691.96
141.859735 -41.020080 692.68
171.859717 -41.020080 692.88
201.859698 -41.020080 692.37
231.859680 -41.020080 692.70
277.399718 -41.020080 692.82
247.539740 -39.840075 693.73
213.379665 -39.160080 692.92
223.149644 -39.130082 692.62
198.039699 -37.830075 692.62
251.769657 -37.400081 692.94
255.449653 -34.790085 693.22
31.019661 -32.630077 692.50
11.539670 -30.230079 692.43
259.829667 -29.620079 692.91
261.859662 -27.230078 692.56
224.309692 -25.110080 693.00
265.649737 -24.610085 692.72
228.289645 -22.260079 693.05
234.749646 -22.230081 693.45
222.079726 -21.370079 691.72
219.839666 -19.660080 692.00
236.969637 -18.590081 692.42
264.539682 -16.610086 692.67
240.359651 -16.490077 692.15
216.109678 -15.620078 692.32
250.659721 -14.950081 692.44
232.609691 -14.760077 691.67
254.519738 -12.700076 692.20
32.629644 -12.020081 692.23
231.449644 -11.160080 692.22
50.969656 -11.020076 692.19
111.859634 -11.020076 691.41
141.859735 -11.020076 692.10
171.859717 -11.020076 692.46
201.859698 -11.020076 692.44
258.699663 -11.020076 692.23
261.859662 -11.020076 692.56
12.519696 -10.080075 692.37
239.769712 -9.480080 692.73
246.559714 -7.550078 692.71
6.929641 -7.240080 692.22
227.399630 -7.160081 692.29
241.719670 -7.060080 692.86
248.199740 -6.910079 692.51
21.539664 -5.260078 692.22
251.789725 -4.970081 692.38
238.679725 -3.840076 692.85
60.429703 -3.410075 692.22
33.449717 -1.800077 692.22
242.719646 -1.760074 692.72
23.879709 -0.510079 692.22
242.999653 -0.020080 692.00
1908.812299 -1974.641343 704.21
1911.672459 -1977.941346 704.32
1919.992409 -1985.301338 703.75
1929.822356 -1995.281382 704.39
1940.572361 -2006.011438 704.19
1945.042505 -2011.091233 704.31
1953.052285 -2019.591442 704.58
1962.802434 -2030.021303 704.61
1974.452310 -2042.001298 704.31
1977.582503 -2044.731311 704.31
1988.022339 -2037.741338 704.49
1985.922402 -2041.061290 704.35
1984.012462 -2043.161465 704.44
1982.002298 -2047.461324 704.61
1979.892387 -2047.061382 704.02
1979.972423 -2049.211430 704.34
1982.782472 -2054.321388 704.41
1981.562456 -2053.381380 704.43
1977.832349 -2058.351452 704.83
1971.932481 -2065.491285 704.76
1934.572507 -2112.541321 705.07
1909.652321 -2143.791242 704.86
1866.742311 -2194.951378 705.58
1855.442503 -2209.131297 705.61
1851.792431 -2212.441274 705.74
1847.702280 -2218.121459 705.43
1844.712447 -2223.051395 705.59
1841.072350 -2231.961283 706.12
1839.622439 -2236.081359 706.03
1838.632320 -2240.471229 706.29
1839.512479 -2243.991390 705.77
1874.392285 -2288.611370 705.70
1880.342502 -2295.271462 705.68
1906.173484 -1975.944245 704.22
1908.296458 -1973.865445 704.15
1912.795339 -1984.551326 704.08
1917.151485 -1990.933311 704.53
1924.081372 -1996.927465 704.60
1930.380471 -2002.916394 704.88
1935.693487 -2008.861386 705.07
1946.619477 -2020.583461 704.78
1956.267502 -2030.425283 705.44
1960.189506 -2034.440385 705.16
1965.875390 -2040.142420 705.13
1972.009429 -2046.393306 705.13
1973.454353 -2052.313362 704.05
1975.774449 -2051.922444 705.05
1975.375456 -2054.021431 704.94
1971.477439 -2058.008271 705.15
1957.742350 -2075.076374 705.21
1949.370389 -2083.968451 704.84
1947.923328 -2085.645408 704.75
1948.019276 -2087.896392 705.48
1933.178407 -2107.094357 705.60
1924.933507 -2114.438437 705.12
1919.578454 -2122.952420 705.92
1906.110310 -2139.103315 705.97
1899.828311 -2144.808437 705.21
1900.520374 -2145.977390 706.02
1892.494444 -2156.214405 705.99
1880.239429 -2170.700455 706.26
1874.253350 -2175.675278 705.84
1867.488285 -2186.308435 706.12
1855.492377 -2200.400242 706.36
1849.100418 -2206.311273 705.97
1849.603433 -2207.820320 706.40
1847.628419 -2209.617450 706.46
1844.910281 -2212.757381 706.59
1842.546486 -2216.177319 706.60
1838.824454 -2222.682326 705.95
1833.252330 -2237.429384 705.98
1835.093396 -2245.215443 705.72
1833.919455 -2242.571404 705.83
1839.189485 -2250.909403 705.62
1851.591510 -2267.749273 705.67
1859.880347 -2278.378393 705.82
1870.723451 -2290.348413 705.94
1878.896390 -2296.871233 705.33
1877.333431 -2298.381230 705.90
1751.398487 -1841.020326 702.83
1750.816385 -1846.491395 702.83
1747.706379 -1855.573349 702.88
1739.973281 -1869.309388 702.83
1736.027290 -1875.346291 703.06
1733.786281 -1881.448387 703.21
1731.923365 -1887.688349 703.26
1730.240470 -1891.840368 703.22
1728.228407 -1895.417290 703.22
1726.469276 -1899.693400 703.24
1724.802294 -1905.378335 703.00
1723.695326 -1910.704295 702.95
1721.419405 -1917.646294 703.18
1721.046299 -1923.357353 703.12
1719.076510 -1928.413399 703.21
1717.856494 -1932.717415 703.27
1717.060409 -1937.351431 703.29
1715.994291 -1941.684303 703.34
1714.838399 -1946.968344 703.42
1713.474461 -1951.383389 703.47
1712.183435 -1955.095447 703.42
1711.887277 -1958.740294 703.43
1709.378373 -1968.377394 703.47
1708.805296 -1972.938262 703.52
1707.288411 -1979.773388 703.55
1705.672490 -1986.365318 703.73
1704.196454 -1990.488244 703.73
1701.923383 -1996.177453 703.76
1699.666461 -2000.966316 703.76
1698.660429 -2005.546421 703.77
1697.401465 -2010.910261 703.80
1695.065457 -2014.707343 703.82
1692.327369 -2018.678271 703.87
1687.451345 -2029.959316 703.90
1683.281395 -2036.193341 704.10
1679.700435 -2041.299261 704.04
1672.093448 -2050.219362 704.14
1658.791314 -2064.372443 704.24
1654.225459 -2071.749297 704.34
1649.971436 -2081.505383 704.32
1645.249309 -2099.572393 704.45
1644.293389 -2106.304446 704.58
1642.869365 -2115.529254 704.60
1642.730430 -2123.226252 704.66
1642.529508 -2136.308465 704.83
1639.185332 -2148.836364 704.96
1633.118504 -2163.331439 705.03
1627.220298 -2176.521237 705.07
1627.186336 -2194.364289 704.67
1624.716381 -2183.243316 705.12
1605.074299 -2142.318294 704.74
1605.674451 -2141.668268 704.52
1568.495449 -2071.722460 704.40
1552.848283 -2045.668232 704.38
1534.644475 -2015.989344 704.24
1518.006476 -1989.145443 704.29
1503.995417 -1996.057280 704.24
1481.670347 -2007.015332 704.29
1461.589373 -2016.859291 704.40
1443.820420 -2025.735455 704.46
1427.085285 -2033.908395 704.66
1403.038371 -2045.798380 704.74
1386.036291 -2054.318300 704.88
1361.136292 -2066.540304 704.76
1351.277370 -2071.353392 704.85
1336.199481 -2078.828331 705.00
1316.029446 -2088.730240 705.01
1304.195511 -2094.456261 705.00
1303.535510 -2091.488277 704.98
1301.773292 -2085.298427 704.97
1300.165446 -2080.722360 704.98
1296.432489 -2072.766254 704.98
1294.860505 -2069.210231 704.97
1293.899359 -2064.769299 704.96
1290.837327 -2059.045415 704.91
1284.657452 -2047.925391 704.76
1282.559415 -2041.543407 704.79
1277.636367 -2030.235286 704.78
1276.209492 -2027.053319 704.79
1274.746281 -2023.707242 704.78
1266.228498 -2015.725249 704.83
1260.385391 -2006.464342 704.76
1258.109470 -2002.747297 704.66
1255.903373 -1999.050439 704.62
1253.497304 -1995.501303 704.64
1251.074373 -1991.977342 704.65
1248.529369 -1988.248422 704.66
1246.841487 -1983.689454 704.63
1244.620427 -1979.210285 704.56
1242.303419 -1974.099378 704.49
1240.181395 -1969.397438 704.47
1237.984322 -1964.942256 704.45
1236.374339 -1960.573285 704.46
1234.165391 -1956.518284 704.42
1231.909420 -1952.523369 704.37
1229.765308 -1948.600415 704.31
1227.729495 -1943.736265 704.26
1224.505491 -1938.239427 704.22
1218.979441 -1929.321345 704.22
1192.724292 -1886.146290 703.87
1191.325442 -1873.569349 703.87
1208.509443 -1835.334322 703.59
1203.668331 -1818.155308 703.53
1191.920369 -1802.111405 703.29
1183.003355 -1802.355313 703.15
1171.182482 -1798.879326 703.09
1167.858492 -1791.409374 703.05
1158.460312 -1766.664341 702.83
1137.280446 -1725.674364 702.55
1130.304485 -1712.775379 702.54
1130.003340 -1699.688297 702.46
1139.029364 -1686.355289 702.40
1143.267475 -1672.174302 702.28
1145.902490 -1664.323288 702.27
1149.971503 -1656.107362 702.25
1152.225338 -1649.911336 702.22
1155.953308 -1639.046383 702.24
1158.676433 -1631.477395 702.13
1161.462495 -1621.592349 702.11
1162.793421 -1608.362295 702.11
1151.103408 -1593.926356 701.87
1143.977350 -1587.353307 701.84
1136.939402 -1568.497336 701.72
1124.075447 -1533.439289 701.37
1110.291435 -1519.893366 701.33
1092.209462 -1500.659302 701.27
1072.792289 -1492.274397 701.35
1039.653326 -1488.559371 701.07
1011.993390 -1500.894304 701.03
971.497286 -1439.940320 700.82
961.380444 -1442.280365 700.89
958.497483 -1437.144402 701.01
951.963502 -1433.928354 700.91
937.650348 -1432.828393 700.84
925.777463 -1439.863372 700.88
926.307316 -1445.833301 700.70
933.803393 -1450.093380 700.67
936.092377 -1460.998351 700.68
946.474501 -1460.599358 700.77
947.378410 -1465.031384 700.78
954.756451 -1463.064326 700.93
952.091274 -1475.646373 700.78
941.275483 -1478.249326 700.78
928.886282 -1480.052394 700.68
915.647322 -1480.025319 700.66
900.026280 -1478.489316 700.66
894.338495 -1462.276316 700.47
887.899274 -1443.092363 699.12
887.220274 -1443.193299 700.53
889.213338 -1419.209321 700.39
900.552333 -1422.739338 700.42
911.372399 -1423.585298 700.49
921.373343 -1423.688371 700.65
938.241475 -1422.274321 700.85
952.130461 -1421.179347 700.84
962.670283 -1421.821298 700.79
967.022392 -1422.796337 700.75
972.144461 -1423.255297 700.76
983.625478 -1420.824291 700.87
988.217458 -1428.779328 700.84
986.145308 -1432.668321 700.88
1044.071221 -1458.685381 699.70
1044.207306 -1459.716349 701.18
1024.331291 -1441.020332 699.75
1023.772464 -1441.838386 701.05
994.037290 -1412.017357 700.11
993.587473 -1412.066400 700.73
996.420322 -1407.971380 699.63
996.013492 -1406.846363 700.62
1010.030250 -1397.826395 699.65
1009.852366 -1396.800295 700.53
1026.243369 -1383.377394 699.61
1025.597381 -1382.474317 700.51
1042.282404 -1367.229349 699.26
1041.732364 -1366.246355 700.42
1050.912285 -1356.951367 699.09
1050.570291 -1356.351334 700.37
1062.730308 -1334.100362 699.02
1062.305429 -1333.535360 700.38
1075.117372 -1308.167375 699.35
1072.770439 -1308.159300 700.31
1058.735393 -1301.999374 700.17
1049.103280 -1292.350399 700.10
1044.878469 -1287.184393 700.08
1031.502474 -1278.602367 700.02
1024.599424 -1268.075370 699.91
1011.083306 -1251.772359 699.84
1002.723220 -1236.241328 699.66
993.207242 -1213.870302 699.41
989.135379 -1198.955334 699.36
1001.885335 -1143.207375 698.78
1001.945422 -1143.214381 698.79
972.631327 -1165.243295 699.22
951.770418 -1172.942312 699.25
935.992391 -1154.610375 699.15
921.816273 -1135.809384 699.04
908.240306 -1123.296329 698.86
898.994361 -1109.898366 698.86
891.738392 -1102.427345 698.77
872.408380 -1080.878291 698.66
858.024215 -1064.853388 698.68
843.329407 -1049.260370 698.67
831.133290 -1035.246343 698.75
819.118383 -1018.841327 698.61
809.949386 -1008.965306 698.46
799.078258 -996.444295 698.68
788.738408 -984.343296 698.64
771.338285 -961.867297 698.47
760.242249 -948.860370 698.41
753.872377 -940.761291 698.38
739.096344 -921.182324 698.14
735.501372 -908.374359 698.11
740.231336 -891.198373 698.01
716.761299 -895.960340 698.10
701.927317 -879.846376 698.00
694.284231 -871.120368 697.99
677.416336 -854.442351 697.88
664.351223 -836.633321 698.11
658.283208 -829.029362 698.03
635.197201 -802.569372 697.53
625.437315 -787.949374 697.30
608.494372 -767.425352 697.00
599.046318 -754.831371 697.00
567.579325 -713.565365 697.07
558.150271 -703.898340 696.88
552.093418 -696.546364 696.95
546.686354 -689.819358 696.66
512.480323 -646.611349 696.41
507.007353 -638.324353 696.41
498.525313 -627.565322 696.22
489.454284 -615.924352 696.17
483.510360 -607.473364 696.17
462.784348 -580.725352 696.08
442.911302 -556.969370 696.04
434.816261 -545.061335 695.83
429.231312 -537.721353 695.68
412.653281 -515.351336 695.68
407.071301 -507.666331 695.61
399.275267 -496.360348 695.41
394.382262 -489.234349 695.32
374.772361 -465.401359 695.36
358.130325 -444.872350 695.47
346.261358 -428.830346 695.38
332.990336 -413.708342 695.21
326.968276 -406.276360 695.24
310.005265 -385.540343 695.23
299.824299 -371.337358 695.05
286.445335 -349.290335 694.98
277.502316 -337.928333 694.98
267.658357 -319.862332 694.87
261.351302 -307.493348 694.85
252.447351 -287.033361 694.66
246.273294 -275.100360 694.67
242.401283 -263.901339 694.58
241.510318 -255.093336 694.47
236.246344 -245.427351 694.39
225.344342 -243.320348 692.41
225.663298 -248.307342 692.54
225.955299 -250.410337 693.43
222.844343 -249.582338 693.61
220.798318 -247.122357 693.62
221.121312 -243.543357 693.47
224.878375 -242.008333 693.29
228.725331 -243.091343 693.54
238.335356 -238.504351 694.37
234.216350 -228.977359 694.11
218.232296 -223.117361 693.53
218.266376 -222.946334 693.53
216.062297 -216.983352 694.10
216.007317 -216.917357 694.07
209.401374 -208.372351 694.50
204.807376 -199.521362 694.49
201.876323 -191.031336 694.45
194.272304 -180.645352 694.38
185.300311 -168.370342 694.34
177.726335 -157.416343 694.36
170.899284 -145.795352 694.29
163.121300 -132.539351 694.08
155.943349 -120.698350 694.06
203.105363 -58.470350 693.75
201.703307 -55.939344 693.59
200.183335 -53.670347 693.45
204.221356 -46.257349 693.28
315.931139 -101.841340 694.19
321.971129 -117.601347 692.71
322.731116 -117.071345 693.48
350.911168 -149.911345 692.84
351.641111 -149.341341 693.48
377.671114 -180.401340 692.85
378.161068 -179.861349 693.24
400.541119 -196.401351 694.31
411.431128 -219.251346 692.92
411.721110 -218.921346 693.35
432.051098 -245.201344 693.02
432.751117 -244.831355 693.50
479.451084 -300.741346 693.17
479.981174 -299.861335 693.95
510.051098 -334.591341 693.25
511.171128 -334.181334 694.11
540.101073 -370.521352 693.35
540.681037 -369.551361 694.34
546.211125 -367.641361 694.79
568.071179 -403.271356 693.71
569.011187 -402.721346 694.59
595.641105 -435.431361 693.76
596.391116 -434.141344 694.98
604.011166 -433.251359 693.13
603.801219 -433.581359 694.98
626.661130 -470.241343 693.80
627.451041 -469.381371 695.23
657.251051 -505.421344 694.25
658.091074 -504.931331 695.03
684.431009 -539.781331 694.24
685.211183 -538.411337 695.50
708.191029 -569.011352 694.39
709.361170 -568.121336 695.62
713.341123 -563.791374 695.55
750.821032 -619.921345 694.46
751.871000 -618.961328 695.94
789.841100 -664.211324 694.80
790.181194 -661.961350 696.33
823.911046 -703.161332 695.31
824.811154 -701.511330 696.51
852.081123 -736.301363 695.40
854.351107 -736.281354 696.82
887.721153 -768.541344 697.03
887.691228 -768.541344 697.04
873.701069 -774.501358 695.75
874.741063 -773.751347 696.99
897.871006 -811.541366 696.21
898.761140 -810.601358 697.17
911.881115 -828.411338 696.06
912.421180 -827.761372 696.84
922.251127 -833.221339 696.32
928.761122 -841.371360 696.11
929.021180 -840.911331 696.71
946.431039 -861.491342 696.43
946.641223 -860.991355 696.66
967.571007 -885.291321 696.40
968.311043 -884.951346 696.86
990.521166 -910.881364 696.46
990.861022 -910.461352 697.06
1010.381031 -919.001342 696.58
1011.641184 -918.901356 697.18
1036.491071 -947.811351 696.88
1036.881039 -947.031296 697.31
1084.181157 -1005.001384 696.97
1084.291118 -1004.461319 697.55
1090.801113 -1002.931372 697.48
1091.361127 -1004.791319 696.98
1091.761070 -1005.731327 697.50
1086.721174 -1008.071372 696.70
1087.191178 -1008.421322 697.49
1099.061213 -1024.301353 697.12
1099.701026 -1023.701320 697.67
1129.111069 -1061.131355 697.08
1130.091213 -1060.571340 697.93
1159.331209 -1096.121359 697.67
1159.551130 -1095.231344 698.30
1163.571220 -1105.361367 697.69
1164.711199 -1105.231338 698.56
1158.111194 -1120.131343 697.65
1160.891081 -1119.701357 699.23
1182.051235 -1147.781305 698.46
1182.866083 -1146.231289 700.11
1214.971226 -1185.771354 699.05
1215.746175 -1184.401360 700.16
1232.911176 -1204.021355 699.05
1244.851035 -1220.691297 698.99
1245.726207 -1219.781332 700.23
1280.401054 -1263.541340 699.29
1281.816291 -1262.791328 700.22
1300.911183 -1287.261341 699.69
1302.136185 -1286.381301 701.10
1327.141158 -1316.621391 699.87
1328.696279 -1315.151292 701.28
1347.686198 -1341.241382 700.02
1349.156296 -1339.981349 700.99
1363.756107 -1359.671405 700.33
1365.076108 -1359.261369 701.36
1417.146090 -1419.901383 701.39
1424.956136 -1435.201331 700.83
1425.926306 -1434.331384 701.88
1435.776203 -1447.351373 700.97
1436.436203 -1446.511351 701.92
1463.686222 -1482.631359 701.16
1465.036148 -1482.011377 702.06
1477.396136 -1498.101354 700.89
1478.396231 -1497.511296 702.07
1535.476185 -1625.401305 701.87
1527.376156 -1618.701314 701.98
1514.366142 -1601.841376 702.00
1503.796158 -1588.811293 702.02
1494.566126 -1575.601307 702.01
1479.636196 -1560.461313 701.81
1465.676199 -1544.731379 701.90
1453.796189 -1532.111332 701.81
1438.526165 -1513.321385 701.75
1425.526126 -1497.431379 701.72
1410.666257 -1481.611315 701.56
1395.436133 -1465.631299 701.31
1382.316158 -1451.701345 701.04
1365.536137 -1446.651355 700.99
1349.686149 -1424.351340 700.83
1323.016095 -1394.401351 700.73
1312.536122 -1383.111399 700.71
1300.986231 -1366.761364 700.62
1288.806264 -1352.891378 700.55
1277.796201 -1341.201364 700.50
1259.726103 -1320.741347 700.38
1249.226181 -1306.231310 700.18
1229.606186 -1285.061300 700.05
1218.891093 -1269.571355 699.97
1207.531199 -1255.891366 699.86
1196.881179 -1242.471315 699.75
1186.971196 -1230.511388 699.81
1171.801158 -1214.791310 699.61
1160.961142 -1200.591323 699.49
1149.621197 -1187.821298 699.49
1138.771206 -1173.231344 699.35
1125.501134 -1156.221308 699.21
1112.041065 -1142.371390 699.13
1094.551170 -1121.741326 698.98
1079.321045 -1105.771403 698.85
1067.281201 -1093.861350 698.72
1053.551100 -1074.301323 698.58
1027.651006 -1047.361355 698.59
1017.801109 -1035.711359 698.63
1005.501207 -1020.271289 698.56
993.901205 -1005.271298 698.51
979.601114 -986.201343 698.34
968.811209 -971.471385 698.30
955.821144 -952.951352 698.14
946.441014 -940.981331 697.95
1472.034196 -1506.837203 701.78
1473.644179 -1503.657136 702.18
1475.074141 -1502.907837 700.73
1459.364038 -1482.477151 701.18
1458.484116 -1483.597893 702.32
